VERSION .7
FIELDS x y z label object
SIZE 4 4 4 4 4
TYPE F F F U U
COUNT 1 1 1 1 1
WIDTH 1449
HEIGHT 1
POINTS 1449
VIEWPOINT 0 0 0 1 0 0 0
DATA ascii
2.305792 15.29946 11.20028 6 -1
-45.47868 -5.09301 -17.49286 4 -1
-21.18425 4.068712 -12.32508 4 -1
5.720685 -3.34315 9.774353 0 -1
6.744994 2.697433 1.711961 2 -1
-24.69343 6.70686 -24.78633 0 -1
-35.2038 -1.207612 -26.7538 0 -1
20.15829 12.92205 15.66786 0 -1
5.166189 -6.125658 -0.761912 2 -1
44.85034 3.792859 -17.81409 5 -1
24.7865 16.91333 24.5191 0 -1
-5.393471 13.56793 -1.209183 0 -1
26.70968 2.371026 -17.7328 0 -1
-46.08163 -5.427065 -16.17613 4 -1
-4.60417 12.33185 1.145074 0 -1
31.83459 7.064129 -9.60437 5 -1
-15.89734 14.95699 2.079051 0 -1
-5.253658 21.31496 18.23997 6 -1
-41.79024 -2.1394 -12.67999 4 -1
28.25413 6.734987 -5.771525 0 -1
-15.20725 20.68299 15.12253 6 -1
-26.71325 4.157781 -6.749217 4 -1
-14.82127 3.540085 -6.201691 4 -1
19.63356 2.966698 -12.68587 0 -1
-10.779 19.7055 9.763236 6 -1
22.24237 1.9301 -11.15611 0 -1
33.37246 -2.545062 -31.37144 0 -1
36.18858 1.112163 -23.11967 5 -1
-24.98475 2.43576 -12.57227 4 -1
-30.22146 2.548791 -11.15436 4 -1
34.11025 5.461647 -11.92624 5 -1
-37.72992 -2.229668 -26.75045 0 -1
-1.235797 -3.882376 3.806055 2 -1
3.837369 -19.74654 6.238833 0 -1
30.22313 7.393296 -7.298362 0 -1
45.61523 -1.287269 -21.68772 5 -1
17.15234 -0.861569 -2.283011 0 -1
-46.79115 -5.085862 -25.12595 0 -1
-6.1251 -10.42959 10.72139 0 -1
25.84632 -0.8934 -28.7554 0 -1
-7.686433 14.97908 3.226917 6 -1
3.775092 2.211299 2.711904 2 -1
4.789515 -3.388641 4.336101 2 -1
4.33618 2.291751 5.323215 2 -1
-38.28978 1.197423 -2.210287 4 -1
-26.774 2.522362 -11.51788 4 -1
1.765121 -6.94913 -0.76653 2 -1
-30.75592 3.065493 -9.246022 4 -1
38.62547 -1.439603 -26.10618 5 -1
-49.14267 -8.379509 -16.74436 0 -1
28.85817 2.007877 -16.68535 5 -1
33.75866 1.747647 -22.27336 5 -1
27.7774 14.21417 19.27549 0 -1
-42.77224 -1.768058 -6.245181 4 -1
7.78636 3.327406 -2.33707 2 -1
-46.78162 -4.701447 -8.766183 4 -1
-7.764236 -12.67018 12.82811 0 -1
4.592611 -4.287611 6.07841 2 -1
-40.22358 -1.758532 -14.75714 4 -1
-38.92541 -2.553429 -25.99771 0 -1
-27.85496 3.391419 -24.71043 0 -1
-39.9944 -2.57901 -23.93152 0 -1
-3.296059 18.60926 10.75706 6 -1
23.81591 1.400415 -9.167705 0 -1
-2.20192 -3.418072 4.540421 2 -1
-9.268488 14.27164 0.198342 0 -1
-43.58688 -3.482693 -13.72787 4 -1
3.255501 6.88591 -1.11456 2 -1
-2.116954 9.754046 6.264369 6 -1
-10.39462 12.39743 -1.542343 0 -1
1.410477 -0.219681 7.137543 2 -1
-40.04316 -0.954625 -12.5436 4 -1
25.84515 0.063469 -26.61023 0 -1
-8.806718 -11.61383 10.30881 0 -1
36.29041 -0.210257 -25.26139 5 -1
38.74197 -3.28777 -28.20926 5 -1
24.25744 16.1002 21.34476 0 -1
-25.19195 4.141662 -18.76792 4 -1
-1.195618 9.819578 5.411285 6 -1
18.61898 13.33231 19.03409 0 -1
-18.79457 2.863605 -10.08427 4 -1
29.7053 1.955446 -17.79766 5 -1
45.56561 3.14473 -18.60547 5 -1
22.17913 2.050561 -23.14828 0 -1
-33.76584 -0.080357 -15.67441 4 -1
34.78773 -1.6835 -28.75269 5 -1
-47.74658 -5.821322 -10.7704 4 -1
42.82073 -2.145243 -23.92464 5 -1
21.76798 1.113693 -7.867905 0 -1
40.1846 7.78029 -10.79381 5 -1
38.2501 9.236153 -8.251389 5 -1
2.884273 -7.342181 8.311538 0 -1
-14.21253 18.3108 5.188282 6 -1
-45.87503 -4.601557 -10.21658 4 -1
3.637469 -6.588839 -2.754469 2 -1
48.98511 -5.019447 -20.37286 5 -1
-12.70056 12.8389 -0.953331 0 -1
24.19056 0.766381 -24.77066 0 -1
6.261893 -8.206236 3.736607 0 -1
20.93493 2.952097 -15.71422 0 -1
23.16715 2.723523 -14.70633 0 -1
-34.2158 0.088768 -24.28632 0 -1
-45.96975 -6.537457 -20.64066 0 -1
-5.73931 19.20412 10.26155 6 -1
4.209575 7.82018 -2.787616 2 -1
1.540756 3.727261 6.873734 2 -1
2.115967 -17.11953 7.154449 0 -1
3.728944 0.223309 6.171096 2 -1
13.77947 11.06243 18.47018 0 -1
5.085114 -21.02489 7.61441 0 -1
10.21769 16.32814 25.19061 0 -1
-37.34964 0.905269 -9.693702 4 -1
20.24161 2.268879 -10.71196 0 -1
-7.293286 -10.57149 8.860809 0 -1
1.009079 -5.231224 5.391571 2 -1
1.664085 -3.766975 6.272167 2 -1
-38.40393 0.439744 -7.248756 4 -1
36.27011 8.968765 -7.985057 5 -1
-7.569939 20.96027 18.25793 6 -1
11.72357 8.78026 17.17266 0 -1
-31.19118 3.587065 -7.230476 4 -1
-14.36595 3.056219 -4.403087 4 -1
-14.25411 19.71058 9.749703 6 -1
-28.09203 4.135249 -30.16513 0 -1
14.80448 11.40219 19.11048 0 -1
47.87447 -3.145209 -19.22245 5 -1
45.25526 6.782301 -12.7809 5 -1
-30.25648 1.689538 -28.23482 0 -1
-22.94027 4.957684 -18.14726 4 -1
-35.79626 -0.56462 -16.36696 4 -1
12.56733 -2.046722 0.815765 0 -1
-4.991173 -10.5002 12.98639 0 -1
34.21455 7.868023 -9.33194 5 -1
0.793187 -13.73628 8.661013 0 -1
-22.32353 19.30668 12.80109 6 -1
-7.71236 -0.220919 -0.805216 2 -1
-9.273771 19.33318 9.150993 6 -1
31.48428 2.548553 -17.56644 5 -1
15.24683 16.04909 25.31035 0 -1
-30.72855 4.299405 -1.72664 4 -1
38.2389 1.274686 -21.72833 5 -1
33.35184 12.72413 -3.69323 0 -1
-19.10143 5.01152 -11.31671 4 -1
29.19365 0.045856 -28.15402 0 -1
19.8196 0.800321 -7.19733 0 -1
1.682861 -10.77298 6.922101 0 -1
-40.773 -2.309625 -17.25438 4 -1
0.813969 -6.148486 6.623039 2 -1
19.83695 15.95535 30.41499 0 -1
42.59476 5.83411 -14.81243 5 -1
2.065605 12.83244 8.896568 6 -1
5.594788 -6.983101 2.149475 2 -1
-29.90412 1.9262 -26.74809 0 -1
-26.72705 2.127576 -14.20317 4 -1
-32.7929 3.358737 -4.734988 4 -1
-6.364649 -11.07844 11.83244 0 -1
-3.581299 -10.32867 11.40393 0 -1
-7.702847 -9.82385 6.719849 0 -1
23.90046 3.216777 -7.113971 0 -1
-25.37796 6.242306 -5.015228 4 -1
26.55345 16.81527 29.96505 0 -1
-31.26386 1.377418 -13.27888 4 -1
1.560089 -7.676694 7.423676 0 -1
5.80571 6.476799 -7.590942 0 -1
-43.9177 -4.563291 -21.70473 0 -1
-29.25095 3.291653 -8.760663 4 -1
24.22966 16.84442 28.78044 0 -1
-9.756074 21.09367 12.78299 6 -1
-18.23216 19.83901 7.737008 6 -1
-43.23249 -3.933201 -24.75679 0 -1
2.41804 -9.789709 5.670024 0 -1
11.67115 12.07402 19.39181 0 -1
39.71935 6.905191 -12.32402 5 -1
3.618942 -9.912384 6.124054 0 -1
-22.62843 21.30677 10.82001 6 -1
12.34764 7.107005 15.82239 0 -1
-28.78498 1.902562 -12.35332 4 -1
-7.737606 16.77839 5.158047 6 -1
16.17085 10.77547 17.60172 0 -1
3.219281 -6.829057 1.769237 2 -1
28.22931 2.382808 -12.75875 5 -1
40.23933 6.121455 -14.69638 5 -1
-32.45707 0.979286 -19.21049 4 -1
-6.980225 0.055466 0.231049 2 -1
-0.786469 19.99702 18.10779 6 -1
-2.847931 13.52084 6.474396 6 -1
46.70145 7.052143 -10.78965 5 -1
9.764829 14.6984 21.74551 0 -1
43.18605 8.018787 -10.05293 5 -1
-44.39378 -3.501099 -9.378204 4 -1
12.26219 15.44041 23.597 0 -1
45.70312 -7.173276 -24.70332 5 -1
-23.76062 2.790185 -9.756523 4 -1
-1.717715 11.30106 6.727039 6 -1
34.79276 2.426982 -17.74514 5 -1
-27.19141 2.380186 -9.164604 4 -1
6.960281 0.399338 12.93237 0 -1
-44.19884 -3.870855 -15.71402 4 -1
30.91374 2.021739 -20.08746 5 -1
11.02666 3.889069 14.98004 0 -1
-41.34459 -0.52961 -2.874481 4 -1
41.26915 -0.263849 -22.72271 5 -1
-33.60337 3.03149 -5.635361 4 -1
-32.57771 2.512466 -10.022 4 -1
27.25375 1.114022 -24.7366 0 -1
37.80594 -0.668031 -24.81865 5 -1
30.40065 -1.626058 -32.18307 0 -1
-49.10889 -6.46067 -24.95584 0 -1
36.83411 1.465673 -20.85136 5 -1
3.172894 14.70423 9.859833 6 -1
-47.8992 -5.07576 -26.06079 0 -1
24.86863 -1.365368 -28.24624 0 -1
-31.41794 3.384698 -0.711487 4 -1
8.880157 -2.577089 1.943275 2 -1
-29.27269 2.285031 -24.75223 0 -1
32.77779 9.676058 -6.143533 0 -1
-20.2511 3.218778 -8.221402 4 -1
-5.839475 -10.12048 9.317035 0 -1
5.087402 3.568481 1.541046 2 -1
37.76932 7.870545 -10.25497 5 -1
-35.82567 -0.26686 -20.6958 4 -1
-38.2099 0.090921 -12.2357 4 -1
32.24129 -0.153513 -27.74946 5 -1
-27.14134 3.106189 -19.78521 4 -1
34.28073 1.965689 -20.41338 5 -1
-33.20161 -0.371828 -28.21371 0 -1
-0.440857 -3.910202 5.432098 2 -1
-32.291 0.94244 -17.17081 4 -1
-17.81712 20.64633 12.73651 6 -1
0.272243 -11.80077 8.142899 0 -1
47.31408 6.106785 -15.2374 5 -1
-38.5466 -2.994123 -28.61249 0 -1
-41.12813 -2.926663 -23.229 0 -1
-1.451328 13.22076 6.930855 6 -1
-41.7308 -2.799014 -18.74689 4 -1
-34.61942 2.654593 -3.626746 4 -1
-19.2604 20.74342 11.27581 6 -1
-27.74183 5.738332 -4.205771 4 -1
-9.227651 21.08751 16.1255 6 -1
3.169459 15.90346 13.88073 6 -1
-16.7365 17.73641 4.793308 6 -1
-16.00138 17.07284 3.900391 6 -1
32.45934 2.456894 -13.92499 5 -1
-44.65189 -2.899337 -5.739177 4 -1
27.26551 15.25863 21.24233 0 -1
44.24371 5.537845 -16.03819 5 -1
-0.230364 9.727366 6.831289 6 -1
46.75554 6.76499 -9.339005 5 -1
38.25365 4.879704 -14.85934 5 -1
16.74027 12.30005 18.68749 0 -1
18.68461 14.45763 20.65222 0 -1
10.9711 -3.025558 2.13623 0 -1
1.601187 18.73927 16.59479 6 -1
28.25751 5.790775 -8.300253 0 -1
17.30038 13.19104 19.34686 0 -1
43.15605 2.98756 -18.77773 5 -1
-39.2192 0.625178 -3.246343 4 -1
-20.2427 3.666212 -10.27288 4 -1
-9.259833 18.21428 8.246303 6 -1
-38.15785 -1.346725 -20.7723 4 -1
-37.12015 -1.435493 -24.64238 0 -1
38.76056 2.202844 -19.71259 5 -1
6.223489 4.674574 0.190477 2 -1
-33.24749 -0.758858 -31.23406 0 -1
-37.41622 -1.039444 -22.15811 4 -1
38.24496 0.238033 -22.73819 5 -1
14.12427 17.21569 29.29907 0 -1
-39.27607 -1.801149 -18.27472 4 -1
-23.55538 3.74345 -17.69455 4 -1
18.89566 3.383385 -14.70316 0 -1
31.55408 -0.95351 -30.12984 0 -1
39.83276 4.154289 -16.69218 5 -1
-13.2545 2.680623 -3.777832 0 -1
26.7691 14.62604 18.75788 0 -1
2.76624 -0.21626 4.24023 2 -1
-34.13912 -0.925407 -28.65168 0 -1
-8.748434 21.17975 13.72739 6 -1
-35.73808 1.298217 -10.7618 4 -1
38.83779 -0.559172 -23.38586 5 -1
22.64429 13.49088 14.83789 0 -1
3.356406 2.839746 1.733769 2 -1
-37.49078 0.938126 -5.576385 4 -1
-28.29702 3.105338 -9.787218 4 -1
3.108423 8.411381 -4.166421 2 -1
-39.74052 -3.640738 -30.27799 0 -1
28.24496 17.80451 23.67199 0 -1
38.59946 -6.013416 -31.12 5 -1
7.208134 4.738872 -3.751923 2 -1
-42.38303 -3.583603 -21.19177 0 -1
34.29391 8.64027 -8.194181 5 -1
13.97406 -2.784561 -1.005829 0 -1
26.18466 18.18501 25.85011 0 -1
21.36229 2.934164 -20.81057 0 -1
-48.72881 -9.245529 -21.69836 0 -1
-49.58174 -7.177075 -11.75436 0 -1
17.40783 11.07928 14.8978 0 -1
46.65475 -3.301034 -22.13805 5 -1
-7.394416 -13.13616 13.82378 0 -1
18.27065 17.46843 29.24838 0 -1
-33.7494 0.591625 -21.25801 4 -1
16.77468 13.62886 20.29794 0 -1
25.2772 2.602405 -15.25261 0 -1
46.64251 1.143485 -19.61584 5 -1
-39.24159 -2.324907 -24.76891 0 -1
43.32539 -6.231391 -25.3 5 -1
10.32958 6.14573 15.70461 0 -1
36.22036 7.096942 -11.61417 5 -1
-32.23762 3.328763 -6.788185 4 -1
46.18789 5.040672 -16.52871 5 -1
10.83598 10.23548 17.62909 0 -1
-4.341234 14.17358 5.364001 6 -1
45.73946 -3.718472 -22.82707 5 -1
-23.35538 5.451706 -21.24213 4 -1
30.68023 10.44536 -2.238185 0 -1
-35.24567 0.750992 -0.270038 4 -1
-43.04989 -3.487221 -18.116 4 -1
-19.92696 6.189796 -21.52585 0 -1
-2.740753 18.82015 13.23143 6 -1
-26.95697 3.970142 -29.45171 0 -1
35.12463 1.094583 -23.65442 5 -1
16.24833 17.34073 26.7341 0 -1
1.062286 -6.473915 2.601593 2 -1
-43.49317 -4.072701 -19.62776 4 -1
47.86455 -0.698869 -18.83742 5 -1
-3.874272 -2.225826 1.922931 2 -1
-11.96348 1.354439 -3.053986 0 -1
20.79968 16.1692 22.26722 0 -1
5.287113 -6.551682 0.858337 2 -1
24.56136 2.521889 -12.64915 0 -1
-12.74119 20.60413 16.22484 6 -1
23.75159 17.07818 22.82064 0 -1
47.37372 -6.131299 -24.21547 5 -1
42.93629 -0.582649 -22.45935 5 -1
3.457474 1.090584 2.473877 2 -1
15.71474 17.85202 30.68723 0 -1
2.345879 -9.78017 7.2051 0 -1
41.14627 -4.434038 -27.54861 5 -1
-11.26894 21.06033 13.25222 6 -1
-36.09662 -0.928016 -24.70638 0 -1
30.26902 5.789098 -10.26041 5 -1
5.193466 4.9506 -0.629211 2 -1
2.195534 -10.08382 8.775497 0 -1
-31.12383 1.077227 -25.73104 0 -1
-28.86961 1.893364 -15.75154 4 -1
5.370255 -4.383797 9.419098 0 -1
27.24893 2.251214 -16.73405 0 -1
-49.57917 -7.91629 -14.19304 0 -1
-25.72556 4.823597 -23.24272 0 -1
-40.76035 -2.626081 -21.76894 4 -1
-5.676347 15.84956 6.217865 6 -1
25.23265 2.360764 -19.73646 0 -1
37.74259 -3.608349 -29.27905 5 -1
-24.25628 5.751913 -23.28185 0 -1
-9.755939 15.44598 2.261385 0 -1
43.28783 6.621897 -14.22924 5 -1
18.15483 12.35051 16.75613 0 -1
-48.3419 -7.106914 -24.10552 0 -1
37.76488 6.252902 -13.27481 5 -1
-7.24727 21.69243 19.1918 6 -1
-0.723083 13.14102 7.906025 6 -1
19.68781 3.543471 -19.78697 0 -1
33.24636 4.30661 -13.29329 5 -1
0.557114 6.929504 7.053436 6 -1
30.26231 0.536044 -26.24678 5 -1
-12.20052 18.72979 6.238479 6 -1
-38.25772 -3.296769 -30.75906 0 -1
49.29322 2.278296 -16.82958 5 -1
-44.72758 -4.304749 -27.2107 0 -1
48.12059 1.657485 -18.11631 5 -1
-27.80713 3.240721 -23.27374 4 -1
-41.24279 -3.426784 -26.71371 0 -1
-25.24921 3.266738 -9.297896 4 -1
-47.31612 -4.5674 -6.91701 4 -1
22.74815 16.28206 31.76768 0 -1
-37.23368 0.78994 -0.265867 4 -1
-0.800663 7.722013 6.731969 6 -1
-19.78494 20.03285 7.859482 6 -1
-47.90565 -5.661873 -8.784621 4 -1
-39.59087 -0.486547 -10.705 4 -1
6.455063 -0.708954 10.89941 0 -1
43.27403 4.328669 -16.82208 5 -1
30.19506 2.592083 -14.2324 5 -1
-19.75425 18.76625 6.297153 6 -1
32.22483 2.059676 -20.71975 5 -1
-24.75872 4.820627 -6.329031 4 -1
3.312485 -0.561312 5.246501 2 -1
30.772 1.154769 -23.2489 5 -1
32.3005 1.204625 -24.24446 5 -1
-5.248419 14.32462 3.768163 6 -1
30.69509 9.832963 -4.269973 0 -1
-25.23926 4.603275 -21.22567 4 -1
18.26835 15.59455 22.35594 0 -1
1.730141 -6.765057 3.594788 2 -1
25.74009 1.277631 -9.912997 0 -1
-21.69095 3.290446 -8.242604 4 -1
14.75269 17.39897 27.24568 0 -1
3.30212 -17.25289 7.249081 0 -1
-12.59107 -13.10816 9.308856 0 -1
-13.71016 20.90999 13.25848 6 -1
2.769278 3.848989 0.866425 2 -1
-40.88472 -1.080048 -8.76236 4 -1
-36.27939 0.902963 -11.73 4 -1
22.77874 -0.154602 -26.34919 0 -1
22.306 16.07411 21.33615 0 -1
18.48933 0.059364 -5.475647 0 -1
38.72815 -4.805736 -30.21218 5 -1
-34.92045 -1.530242 -29.29707 0 -1
1.382675 -13.67842 9.616455 0 -1
30.776 2.63769 -15.76716 5 -1
-19.26878 20.27989 13.29315 6 -1
42.76553 -3.736317 -24.81123 5 -1
1.455856 5.146271 0.063995 2 -1
-15.25403 20.35149 11.22486 6 -1
-2.722392 20.78066 17.74631 6 -1
36.75391 0.365639 -23.77246 5 -1
-32.36564 0.945488 -23.2932 4 -1
-23.26307 3.619189 -7.754268 4 -1
8.757712 2.729615 13.80483 0 -1
37.73172 3.269124 -16.2776 5 -1
42.2905 2.753485 -19.74042 5 -1
-42.75051 -1.193353 -2.723973 4 -1
40.22234 -1.716065 -25.22592 5 -1
2.758628 -7.768786 4.736403 2 -1
23.39235 5.848143 -3.862167 0 -1
4.62748 5.163282 5.910381 2 -1
36.7925 11.37938 -5.33578 5 -1
25.16894 3.480942 -8.42215 0 -1
-12.33495 19.92062 18.30457 6 -1
36.74509 1.869885 -19.81163 5 -1
-3.699976 21.15684 18.26661 6 -1
20.82806 14.00663 17.9891 0 -1
21.81723 13.60562 15.78463 0 -1
14.25218 15.81122 23.26515 0 -1
17.25698 16.67923 24.23983 0 -1
-15.21633 20.72236 12.79917 6 -1
-14.72166 14.76927 0.756577 0 -1
25.78056 18.27009 24.26553 0 -1
-45.73323 -3.403788 -5.358582 4 -1
21.33492 15.92086 31.72342 0 -1
-48.59105 -8.94247 -19.65448 0 -1
43.15425 7.504658 -11.59511 5 -1
28.84405 1.460409 -18.73618 5 -1
3.06517 -9.166832 8.044037 0 -1
27.44157 19.57362 24.36137 0 -1
20.24019 17.06236 25.78339 0 -1
17.10793 11.93868 17.59112 0 -1
3.052307 6.6325 -3.90213 2 -1
25.78484 17.20511 29.18844 0 -1
38.30131 6.968788 -11.93907 5 -1
24.225 4.848455 -5.351008 0 -1
45.17914 7.180876 -10.7106 5 -1
27.28199 -0.244599 -28.68133 0 -1
2.766899 -6.796438 0.263626 2 -1
-44.33571 -3.670468 -11.75266 4 -1
-33.05386 0.026609 -26.56347 0 -1
28.24231 4.697361 -10.15589 0 -1
4.474518 8.445206 -8.408295 0 -1
1.228513 14.2382 9.246636 6 -1
30.04484 1.026291 -24.19793 5 -1
20.75226 17.16914 30.6982 0 -1
26.16254 -1.739546 -30.19626 0 -1
42.41244 -4.641532 -26.3122 5 -1
40.75784 -3.241147 -26.75606 5 -1
-36.3583 -2.070419 -28.30229 0 -1
-41.66082 -3.433701 -25.22495 0 -1
27.29922 4.172349 -9.738185 0 -1
-10.72334 20.2252 10.75601 6 -1
-48.75142 -8.643475 -18.25901 0 -1
-45.25524 -3.644269 -7.79825 4 -1
26.28033 16.79194 22.6721 0 -1
30.2359 -0.380862 -29.16835 0 -1
7.25176 4.85273 -0.728273 2 -1
15.26026 -1.157503 -1.737142 0 -1
2.120232 -12.73499 8.225974 0 -1
-2.407705 12.05976 5.253519 6 -1
-38.31797 -1.572118 -22.76649 4 -1
0.572637 4.276673 -0.215061 2 -1
27.17165 0.250387 -26.69611 0 -1
-9.267585 15.75701 3.759857 6 -1
-42.79262 -2.128765 -8.310018 4 -1
1.781235 16.79085 13.7205 6 -1
-4.255818 -9.758811 10.73707 0 -1
27.21873 1.831719 -21.76726 0 -1
28.78796 9.685334 -3.208407 0 -1
25.71707 5.773032 -5.428761 0 -1
25.73591 1.679409 -23.24757 0 -1
-9.222697 21.23804 14.72572 6 -1
32.30929 -2.106331 -31.39555 0 -1
24.71372 2.784133 -16.74018 0 -1
40.76731 3.272122 -18.28047 5 -1
-45.57351 -5.43713 -22.9314 0 -1
-40.31522 0.581443 -2.158447 4 -1
-20.77026 18.4478 14.2955 6 -1
-1.809473 -11.89677 8.673327 0 -1
-7.300565 13.37151 -1.244202 0 -1
19.26401 17.34933 30.74651 0 -1
-3.678037 12.82732 6.256677 6 -1
-24.68588 3.170888 -14.24626 4 -1
40.06917 -4.407417 -28.60144 5 -1
4.620305 -6.041326 -2.728703 2 -1
-38.76791 0.830019 -0.856934 4 -1
22.744 2.703784 -19.72989 0 -1
-45.59649 -4.906925 -15.25877 4 -1
8.025574 -0.210907 11.83917 0 -1
20.89669 1.493107 -9.121918 0 -1
46.66801 -5.341485 -23.18766 5 -1
9.153157 15.61281 23.29322 0 -1
-30.79565 1.377097 -16.7636 4 -1
2.609815 -1.323376 4.733913 2 -1
1.028473 3.402878 1.361176 2 -1
-50.07616 -8.956291 -23.45822 0 -1
-10.25287 17.74581 5.304332 6 -1
19.78833 3.409418 -15.6971 0 -1
1.478714 -4.808807 6.572937 2 -1
-3.363571 12.58995 1.706021 0 -1
6.659012 6.121445 -3.277604 2 -1
-37.28158 1.281738 -1.718302 4 -1
-30.70632 4.118539 -5.780124 4 -1
24.16153 17.92862 25.20862 0 -1
-38.71444 0.615453 -4.74493 4 -1
21.81504 14.06663 16.78989 0 -1
-11.84744 2.222234 -3.716221 0 -1
45.13018 -5.253577 -24.13711 5 -1
-36.11991 -2.397172 -30.75413 0 -1
-11.75227 20.5347 11.30517 6 -1
-19.92595 6.050629 -16.10336 4 -1
42.1814 4.41981 -16.80259 5 -1
24.74847 2.135261 -21.21732 0 -1
-36.80246 1.347924 -8.251057 4 -1
-26.26739 2.403925 -15.24378 4 -1
-2.739692 15.24702 7.243583 6 -1
40.81619 9.441187 -7.262584 5 -1
-34.2631 0.332651 -19.66935 4 -1
-13.73446 17.29208 4.73241 6 -1
26.71194 5.277465 -6.251275 0 -1
1.969147 -1.162102 5.959839 2 -1
-34.29325 -0.642597 -26.2607 0 -1
41.76158 8.611801 -9.205998 5 -1
14.21501 9.679073 17.33627 0 -1
7.444611 2.383863 13.63216 0 -1
-10.2381 21.04533 15.68071 6 -1
-43.74889 -4.187768 -26.73948 0 -1
-9.690825 -12.38383 11.18478 0 -1
39.72934 8.231068 -9.768039 5 -1
27.6831 1.276629 -10.77714 0 -1
-33.73223 2.171042 -9.756173 4 -1
-36.39091 1.499306 -3.705139 4 -1
-6.70429 14.87794 2.761159 0 -1
36.46606 -1.513336 -26.88547 5 -1
-37.21908 -3.109201 -31.76917 0 -1
-38.13853 -0.460693 -14.53639 4 -1
-28.36575 2.357578 -21.24926 4 -1
-11.27069 20.75855 16.74663 6 -1
-32.77109 0.966059 -13.85425 4 -1
30.74797 0.305637 -27.19549 5 -1
-14.78071 17.17982 3.772723 6 -1
-18.28264 3.614026 -7.171345 4 -1
1.914963 -7.182445 -3.148499 2 -1
42.2673 8.839391 -7.794037 5 -1
-21.92696 5.44574 -17.65558 4 -1
18.20417 17.02197 25.36593 0 -1
21.29755 2.821807 -16.73297 0 -1
-32.20115 0.560756 -15.29589 4 -1
26.3416 18.15681 28.24559 0 -1
-30.61344 1.984947 -11.99814 4 -1
47.78059 -4.697229 -22.20845 5 -1
-28.83533 2.651861 -10.72833 4 -1
-11.26229 21.07191 14.72475 6 -1
39.78115 -1.067749 -23.90366 5 -1
-30.96958 3.95488 -2.748047 4 -1
41.15887 7.109787 -12.76667 5 -1
17.74479 13.30899 20.71609 0 -1
35.23716 0.218526 -25.2306 5 -1
30.78343 2.533639 -13.18305 5 -1
3.108633 -2.715461 6.144557 2 -1
26.14931 15.86715 30.38039 0 -1
19.73687 3.279298 -13.72938 0 -1
-10.25999 15.09732 0.796761 0 -1
7.742221 2.655318 2.134242 2 -1
-31.72638 0.78726 -26.76592 0 -1
24.98837 -2.542671 -28.57251 0 -1
32.23374 10.23713 -5.186367 0 -1
-46.7312 -4.323802 -27.29603 0 -1
-4.288183 17.60549 8.356726 6 -1
28.75838 2.430195 -13.75195 5 -1
8.697562 -2.699362 3.129889 2 -1
-42.27795 -1.645902 -7.228603 4 -1
5.286963 -8.225986 4.270233 0 -1
45.22934 7.801518 -8.728594 5 -1
-29.18126 2.062193 -20.23063 4 -1
-39.74794 -1.170798 -13.7426 4 -1
48.74073 -5.663658 -22.78242 5 -1
-45.6242 -5.818321 -19.73972 0 -1
23.75634 -0.714364 -26.85023 0 -1
-17.22206 20.16132 16.74412 6 -1
31.25651 5.188029 -11.18477 5 -1
0.218688 6.246677 6.241931 2 -1
25.73592 15.18102 20.28052 0 -1
48.69881 6.258143 -14.76291 5 -1
33.25181 2.372627 -18.78343 5 -1
36.65739 -2.965591 -29.59833 5 -1
-30.28034 1.678902 -20.78031 4 -1
-11.7066 17.82977 4.640419 6 -1
15.70898 -2.132378 -1.848572 0 -1
46.22524 -2.276999 -21.71049 5 -1
-32.76741 2.801625 -7.710254 4 -1
47.16193 3.606755 -17.55104 5 -1
-4.068924 -3.077171 3.14743 2 -1
-33.39745 2.960668 -3.756846 4 -1
35.17706 -0.852778 -27.65232 5 -1
-42.28159 -4.067982 -28.76948 0 -1
-34.2416 1.329696 -12.24414 4 -1
20.27219 17.37662 28.76573 0 -1
28.2883 14.96598 21.08755 0 -1
25.84481 8.087064 -3.171727 0 -1
-39.83699 -2.213691 -19.7805 4 -1
41.72329 -1.865071 -24.68213 5 -1
41.34913 -1.099033 -23.39436 5 -1
-30.42392 1.490311 -23.99744 0 -1
-19.78087 20.74835 9.233229 6 -1
44.73437 5.876108 -14.84414 5 -1
-5.205677 17.05124 7.953339 6 -1
-10.72691 13.70145 -0.65837 0 -1
4.276205 -6.429873 -0.245991 2 -1
-5.277206 14.37784 6.918442 6 -1
6.372498 -2.523125 10.46988 0 -1
-16.23738 19.59343 7.366329 6 -1
26.61546 14.53412 17.29692 0 -1
25.74269 2.427943 -18.253 0 -1
15.9873 -0.983543 -2.505371 0 -1
-8.292869 17.61911 6.212598 6 -1
-30.27086 3.476517 -4.607727 4 -1
-0.751902 11.7445 7.253818 6 -1
-33.76567 2.415996 -7.75206 4 -1
-36.28851 1.434112 -6.241375 4 -1
-4.650202 13.83062 2.761452 0 -1
30.3933 4.133408 -11.65582 5 -1
-3.247383 20.32027 16.24871 6 -1
19.77338 0.134364 -5.2662 0 -1
2.384135 -3.161708 5.360219 2 -1
-40.75284 -3.876967 -30.79859 0 -1
-13.75877 15.28783 1.243396 0 -1
1.778882 -14.88623 9.220728 0 -1
-12.71244 15.44181 3.090698 6 -1
26.72604 17.68085 23.41887 0 -1
-21.23439 6.100451 -21.26259 0 -1
-27.85783 1.79298 -11.2049 4 -1
-8.247907 17.25649 8.129883 6 -1
2.828125 1.10893 3.637339 2 -1
-27.72111 2.216281 -15.81324 4 -1
-30.68174 1.08244 -14.19521 4 -1
11.97333 -3.251678 0.98761 0 -1
32.23248 1.767695 -21.74743 5 -1
-39.22579 -1.806842 -20.74809 4 -1
44.79782 -3.161725 -23.36626 5 -1
12.77956 10.47713 18.51375 0 -1
26.69654 7.327646 -4.348724 0 -1
-30.03087 2.772957 -8.248901 4 -1
-41.06287 -1.496918 -12.23593 4 -1
8.599632 0.85841 13.60942 0 -1
-8.531921 13.0528 -1.008209 0 -1
2.719116 -19.19314 7.638471 0 -1
4.28332 -5.70155 8.786087 0 -1
6.735989 -7.640056 2.773729 0 -1
13.60206 7.224352 16.6069 0 -1
-38.75853 0.263949 -8.238332 4 -1
-21.99919 4.988808 -16.0368 4 -1
49.64508 3.709827 -16.12086 5 -1
23.23761 2.594755 -13.21525 0 -1
-18.86276 3.44112 -8.633782 4 -1
-39.77009 -1.758105 -15.72081 4 -1
-11.77162 -13.30895 11.26925 0 -1
1.082868 11.70276 7.369131 6 -1
41.61478 -2.878246 -26.1131 5 -1
-18.70038 2.337856 -7.425232 4 -1
19.78184 13.16944 16.79679 0 -1
-38.23683 0.297869 -10.71434 4 -1
-21.64708 4.633955 -14.31875 4 -1
-23.83934 1.601212 -9.772858 4 -1
43.21981 1.749419 -20.76775 5 -1
-17.50822 14.57278 3.837006 6 -1
35.21447 -2.713737 -30.30014 5 -1
34.27 -0.116204 -26.73193 5 -1
33.32673 3.675517 -14.1431 5 -1
43.82377 8.530617 -8.30895 5 -1
-28.73613 2.833916 -28.71946 0 -1
-6.762339 -9.832397 7.210593 0 -1
-24.7381 4.201805 -7.680665 4 -1
30.7418 2.171089 -18.22336 5 -1
21.73465 17.19137 28.78145 0 -1
32.29501 4.191365 -12.61542 5 -1
5.825023 -3.935865 3.851359 2 -1
41.25074 8.064184 -10.69775 5 -1
-35.79211 1.589965 -2.222809 4 -1
-20.88458 5.921157 -17.73552 4 -1
-3.840581 -10.42282 9.276341 0 -1
-21.32596 6.424229 -23.21183 0 -1
35.20834 2.16148 -19.72842 5 -1
21.23734 2.048353 -23.63233 0 -1
17.11104 -1.868031 -1.956879 0 -1
-3.759726 13.25789 2.7599 0 -1
-12.73537 19.47623 9.568542 6 -1
36.20668 1.562606 -21.6981 5 -1
29.17191 4.308079 -10.86318 5 -1
-4.639984 12.71122 2.362081 0 -1
1.851082 14.40411 10.08734 6 -1
-4.336371 20.08421 14.25996 6 -1
-4.269904 -9.648292 12.27518 0 -1
6.090007 5.808822 -6.618546 0 -1
-48.21181 -6.354473 -11.73298 4 -1
-17.74446 20.23384 8.777905 6 -1
41.25932 1.74078 -20.67401 5 -1
-37.91467 -0.038368 -13.30995 4 -1
43.79644 3.762832 -17.74996 5 -1
47.76301 -3.234322 -20.26902 5 -1
41.72459 4.032547 -18.02887 5 -1
26.32378 19.17764 26.23096 0 -1
-27.18915 3.648792 -22.20971 4 -1
3.13294 8.945843 -5.59817 0 -1
15.26544 12.30636 19.74694 0 -1
10.24833 13.18634 20.34693 0 -1
2.150697 -13.7053 7.404647 0 -1
-6.304259 16.57756 6.652654 6 -1
3.762543 -7.063585 3.185493 2 -1
50.03201 -6.95768 -23.26471 5 -1
-21.75191 20.64976 8.456268 6 -1
0.805696 4.776611 6.719898 2 -1
26.24324 2.325282 -15.75753 0 -1
-17.78585 20.34991 14.74664 6 -1
-6.195509 20.71933 16.70856 6 -1
27.66199 17.80371 29.77052 0 -1
19.20057 3.370239 -16.7523 0 -1
35.1982 5.907722 -11.86267 5 -1
-2.577789 9.91777 5.187805 6 -1
17.85564 -1.218385 -3.717807 0 -1
-47.41525 -8.020615 -20.37723 0 -1
-7.192879 21.10538 13.29616 6 -1
-36.83535 -2.58346 -29.7596 0 -1
39.09384 4.400909 -15.46899 5 -1
1.29521 -11.70773 7.208652 0 -1
40.05593 10.61841 -6.317101 5 -1
24.76597 2.117715 -11.25489 0 -1
-23.26311 5.870747 -22.71608 0 -1
-45.02515 -3.982526 -10.22599 4 -1
31.29351 10.33418 -3.267503 0 -1
1.925603 6.560618 -2.76476 2 -1
39.0743 2.499603 -17.96481 5 -1
-27.12797 3.528831 -9.070251 4 -1
23.24086 3.241565 -5.621655 0 -1
17.79406 17.45717 27.74558 0 -1
-21.81286 2.155914 -9.066467 4 -1
-25.24815 3.8542 -17.76023 4 -1
38.7249 1.733178 -20.74215 5 -1
39.59371 -1.949893 -26.03267 5 -1
28.26145 16.67799 22.84159 0 -1
-10.69142 -12.42245 10.67705 0 -1
40.23468 1.887439 -19.78488 5 -1
-25.49889 4.71833 -27.96619 0 -1
48.0072 4.003403 -17.04297 5 -1
-41.71539 -3.873975 -30.29735 0 -1
-37.8926 -2.580097 -27.8161 0 -1
-43.29103 -1.708268 -3.75752 4 -1
0.31935 5.259948 -1.686499 2 -1
-23.27286 3.89358 -14.18681 4 -1
44.85701 -1.676011 -22.39799 5 -1
32.21242 2.641938 -15.2034 5 -1
-46.27067 -6.745048 -21.77141 0 -1
-0.200635 18.79087 16.20232 6 -1
-6.23292 17.33553 8.664997 6 -1
27.29006 20.20608 26.25108 0 -1
6.930557 1.086128 12.14474 0 -1
48.27221 6.775418 -11.24489 5 -1
28.18169 20.16722 24.80416 0 -1
1.821493 0.286509 6.106232 2 -1
-42.07486 -0.477188 -1.955933 4 -1
3.234414 1.773087 5.782943 2 -1
2.155839 -14.75934 7.291296 0 -1
-3.276706 18.12319 9.834003 6 -1
29.72941 2.736098 -12.22108 5 -1
-9.752233 20.802 17.71264 6 -1
48.86682 -4.606464 -18.94225 5 -1
-15.73965 20.70482 14.22602 6 -1
25.2387 14.38579 15.87812 0 -1
-27.39869 3.897919 -26.78932 0 -1
7.213324 -2.934895 3.720355 2 -1
-29.32476 1.924467 -17.26912 4 -1
-8.29599 15.1648 1.738004 0 -1
-22.19958 5.631396 -19.78679 4 -1
-4.840681 20.2483 15.71787 6 -1
47.25933 1.747852 -18.6921 5 -1
4.730923 0.796373 5.241123 2 -1
-44.76408 -5.232249 -21.28429 0 -1
-12.76198 14.79141 0.263755 0 -1
-11.32412 16.60664 3.440908 6 -1
2.310179 15.79355 12.20411 6 -1
-2.010391 15.93622 10.07104 6 -1
-44.58026 -4.406209 -17.7361 4 -1
-23.39091 3.45377 -12.6724 4 -1
2.386917 3.074165 5.965332 2 -1
-0.755213 14.64584 8.880079 6 -1
5.144319 9.152024 -6.291524 0 -1
-31.11418 1.10793 -28.21239 0 -1
49.18588 7.32324 -12.80465 5 -1
13.69933 -1.636153 -0.70312 0 -1
-18.75471 20.62924 12.22928 6 -1
3.902985 9.024818 -4.894714 0 -1
36.24871 7.935123 -9.861603 5 -1
28.87092 6.565624 -7.68543 0 -1
-20.14871 5.551218 -13.87889 4 -1
19.74457 17.47922 27.76415 0 -1
22.08724 0.332272 -7.270905 0 -1
-6.1704 -1.60703 1.698369 2 -1
4.831378 -3.748682 10.10885 0 -1
11.49431 17.73743 27.59351 0 -1
7.087799 -8.663353 4.171906 0 -1
30.43676 -1.043596 -31.3309 0 -1
-0.230927 -14.72698 7.771805 0 -1
24.6733 1.875642 -8.843436 0 -1
-27.79142 1.719099 -13.24528 4 -1
0.571991 -10.05617 6.952362 0 -1
19.33167 2.616383 -23.17676 0 -1
26.66608 1.858352 -11.75331 0 -1
-30.40805 4.433038 -3.712125 4 -1
13.2245 15.72048 23.2475 0 -1
-7.335377 -0.724183 0.815533 2 -1
-16.17301 14.24284 1.292704 0 -1
-17.99301 3.957886 -9.729218 4 -1
-24.23504 2.558204 -10.7241 4 -1
-21.24274 21.30833 10.23819 6 -1
-50.08046 -8.832889 -16.18844 0 -1
37.76837 10.26989 -6.817367 5 -1
-15.21431 18.60221 5.358815 6 -1
-0.762248 -5.209403 5.290726 2 -1
12.50508 -2.084885 -1.013794 0 -1
-4.463745 21.03107 16.43741 6 -1
-47.81542 -6.641605 -15.3327 0 -1
15.54873 9.9105 15.31813 0 -1
-16.24681 20.41764 17.27577 6 -1
7.253342 -6.548315 0.859741 2 -1
24.75062 16.46774 29.87915 0 -1
15.80055 15.06886 21.88281 0 -1
30.34191 7.057899 -8.657593 5 -1
1.684372 -8.707241 6.49115 0 -1
-25.73727 2.366126 -9.29129 4 -1
-44.70335 -4.173818 -30.09324 0 -1
-5.924286 -0.853261 0.454407 2 -1
11.26189 15.54683 23.40535 0 -1
-11.69292 19.80737 19.09422 6 -1
2.693962 0.755754 4.722553 2 -1
28.7277 1.33544 -23.23651 5 -1
1.239681 6.287567 -1.753011 2 -1
26.77319 1.886704 -13.72722 0 -1
37.2898 8.875168 -8.324629 5 -1
30.94948 1.544436 -22.18512 5 -1
11.73575 7.640127 16.44608 0 -1
26.73502 -0.947751 -31.04425 0 -1
12.24667 13.34531 20.68583 0 -1
1.258885 1.73265 6.194028 2 -1
12.74776 17.52052 27.43048 0 -1
-28.73305 4.632956 -6.171052 4 -1
-4.752864 13.39241 -0.259504 0 -1
-26.54971 4.625597 -28.24195 0 -1
5.68908 2.231351 2.255255 2 -1
28.21535 -0.247704 -31.64591 0 -1
-19.73334 17.75853 5.886589 6 -1
4.212192 -20.81501 8.205702 0 -1
34.2244 1.550903 -23.1841 5 -1
-42.25302 -2.844437 -14.75977 4 -1
24.75868 14.83875 18.75389 0 -1
-42.23165 -3.91349 -27.76274 0 -1
-26.97824 2.4428 -17.21996 4 -1
-39.79881 -2.116267 -21.71847 4 -1
49.26988 4.872382 -15.40983 5 -1
12.73736 8.749972 17.25183 0 -1
13.21978 14.26593 21.70443 0 -1
31.13573 7.912661 -6.777745 0 -1
-0.01149 -10.66939 8.146271 0 -1
-41.2242 -2.394124 -16.24484 4 -1
-44.75142 -4.277259 -28.22673 0 -1
-49.15245 -7.799909 -15.25017 0 -1
-17.80801 18.02077 4.979218 6 -1
-4.736557 15.58096 6.950598 6 -1
-7.241784 21.29391 17.24956 6 -1
24.73208 1.407389 -23.84151 0 -1
-10.29792 -14.53422 13.10781 0 -1
-31.73038 2.785707 -9.29574 4 -1
1.22931 12.70623 8.310081 6 -1
-0.772619 17.59829 11.82695 6 -1
20.63772 1.777433 -12.60519 0 -1
-0.336849 -13.27432 8.748051 0 -1
29.79121 2.395104 -15.75037 5 -1
-1.691574 8.489597 6.603531 6 -1
22.74275 2.810143 -17.22794 0 -1
-8.844934 -0.165661 -0.08784 2 -1
-21.0847 18.96145 6.564682 6 -1
-12.96241 1.425461 -3.551178 0 -1
17.22087 14.299 21.2 0 -1
-33.30471 1.847683 -0.704421 4 -1
41.18886 6.297094 -14.24843 5 -1
23.26311 14.36444 16.73982 0 -1
40.59561 -5.802414 -29.59454 5 -1
-15.70651 20.2165 18.14016 6 -1
-31.74318 1.271398 -21.75696 4 -1
-20.78915 20.13358 7.893768 6 -1
-4.696603 19.23166 12.17939 6 -1
50.51389 5.108009 -14.81897 5 -1
49.67702 1.26689 -16.69603 5 -1
-8.226761 21.03808 16.24083 6 -1
-29.25514 5.713332 -2.763126 4 -1
1.678707 -10.88619 9.131813 0 -1
24.75536 6.778646 -3.745249 0 -1
-41.8163 -1.154725 -4.749803 4 -1
50.61556 3.311516 -15.55969 5 -1
-13.28121 20.96289 14.23017 6 -1
24.24841 14.67675 17.74948 0 -1
3.290378 -18.2067 8.12428 0 -1
7.708969 4.271543 -2.677793 2 -1
22.28481 17.22468 26.7377 0 -1
6.529012 6.16539 -5.57075 0 -1
-20.19958 5.10004 -12.81766 4 -1
-27.70754 4.537872 -7.128552 4 -1
1.628597 -12.71768 7.220814 0 -1
3.266233 6.186617 -0.335035 2 -1
-5.793367 13.64671 -0.232332 0 -1
32.7029 5.819356 -11.28363 5 -1
-10.86351 1.784119 -3.16349 0 -1
5.319756 7.724635 -4.267005 0 -1
16.25253 16.64882 24.26072 0 -1
-41.33176 -1.594462 -10.25955 4 -1
20.79568 2.921411 -21.76863 0 -1
34.27869 10.79781 -5.835517 5 -1
2.61702 -1.750286 6.615112 2 -1
-43.7476 -2.364231 -6.251675 4 -1
15.85558 -1.19194 -3.55777 0 -1
28.28231 0.572102 -26.71338 0 -1
-46.34204 -6.098172 -18.82296 0 -1
-9.16898 -14.1952 13.57906 0 -1
16.25983 17.67762 29.24085 0 -1
39.51448 -2.982033 -27.52759 5 -1
34.25602 7.384557 -10.23761 5 -1
22.63259 1.843501 -6.851652 0 -1
-29.07095 2.559337 -26.74791 0 -1
-27.15319 4.106783 -24.74994 0 -1
-15.06782 2.258743 -4.919785 4 -1
-39.44968 -0.058372 -6.286758 4 -1
-5.259036 20.86763 19.25599 6 -1
-24.28691 5.083496 -21.2134 4 -1
1.382333 2.881807 2.616657 2 -1
-10.67116 1.227383 -1.371603 0 -1
3.077042 -13.6918 7.879395 0 -1
5.856531 7.352887 -5.268282 0 -1
-0.288752 7.26398 7.558462 6 -1
-32.63976 1.039686 -21.2056 4 -1
21.74916 14.29346 18.25492 0 -1
-30.77151 1.588853 -18.74656 4 -1
15.78372 17.04683 25.37181 0 -1
-35.28999 0.008362 -15.55252 4 -1
-43.14864 -3.9321 -21.80534 0 -1
-25.88428 5.606496 -28.6708 0 -1
8.220976 -3.789197 2.866155 2 -1
1.317537 1.735711 7.198376 2 -1
-41.58271 -2.988613 -21.26248 4 -1
45.23558 -6.244878 -24.21128 5 -1
35.27062 -4.173707 -32.32581 0 -1
21.07709 1.184385 -4.854391 0 -1
2.749466 7.395015 -4.714244 2 -1
-32.83881 0.882442 -18.29248 4 -1
-17.2237 3.378561 -6.764245 4 -1
0.747712 -6.614085 1.234194 2 -1
-10.81607 -13.73784 12.22594 0 -1
16.82394 11.14829 15.70447 0 -1
-12.24118 20.82304 12.77274 6 -1
13.27287 16.70203 25.21774 0 -1
-14.76675 18.85161 6.281832 6 -1
-25.91489 2.97673 -16.16401 4 -1
7.117034 4.756609 -4.744363 2 -1
31.27141 -0.402459 -29.12882 0 -1
-35.76336 1.827177 -8.253056 4 -1
42.30248 -3.7144 -25.79711 5 -1
35.22386 2.370914 -18.75578 5 -1
-16.72293 20.31813 10.76364 6 -1
-3.907606 13.56731 4.706625 6 -1
22.74202 2.167062 -22.2535 0 -1
41.55394 -6.445885 -28.98962 5 -1
3.591393 -7.592951 9.184387 0 -1
1.435048 -2.914907 6.772115 2 -1
20.96156 16.98414 32.69731 0 -1
-17.29244 20.65361 13.75823 6 -1
-12.88862 14.59136 -0.738013 0 -1
-40.93727 -0.754255 -1.367747 4 -1
-5.282882 20.66134 14.21942 6 -1
24.811 -0.146998 -26.25993 0 -1
-10.28259 18.1808 6.264553 6 -1
7.829967 3.430146 0.913753 2 -1
38.72176 8.230021 -10.18364 5 -1
45.70519 6.783535 -13.66907 5 -1
29.45679 1.53968 -20.15305 5 -1
-26.7333 5.574446 -5.065605 4 -1
29.07031 18.3042 23.45287 0 -1
0.167282 5.062241 7.559967 6 -1
1.176498 -7.584637 6.457108 0 -1
23.65322 13.94199 15.15613 0 -1
-41.2705 -2.209997 -14.25881 4 -1
3.915237 3.294731 4.953715 2 -1
-42.3235 -3.583672 -23.30692 0 -1
14.75739 17.59218 28.21405 0 -1
11.75749 9.763507 17.70298 0 -1
-11.75541 15.57171 1.793713 0 -1
18.24007 16.60355 24.19552 0 -1
3.257505 -6.643712 -1.780879 2 -1
26.2515 -0.775107 -29.71254 0 -1
41.8176 -6.229393 -27.76798 5 -1
33.58393 -3.407661 -32.6108 0 -1
-8.882738 -13.07444 12.39211 0 -1
22.25781 17.23637 25.75263 0 -1
-44.71458 -2.818612 -4.759055 4 -1
20.24175 17.41944 26.70864 0 -1
-7.706851 -9.307858 5.880551 0 -1
-9.258108 -11.39403 9.22182 0 -1
17.73694 17.54961 30.25573 0 -1
10.86863 8.145568 16.64611 0 -1
-30.02883 2.038498 -30.75224 0 -1
38.19666 3.997742 -15.45593 5 -1
35.14556 12.59512 -4.301384 0 -1
9.934769 5.292618 16.0645 0 -1
-50.00526 -9.404747 -18.11713 0 -1
1.107997 4.775308 -1.267771 2 -1
8.520218 2.913643 -1.687286 2 -1
14.24819 13.20286 20.25996 0 -1
37.7355 11.64536 -5.257655 5 -1
11.23167 13.58682 20.92621 0 -1
-6.590576 15.90381 7.307239 6 -1
0.74157 18.14325 14.76618 6 -1
-5.712874 15.27376 5.212241 6 -1
0.68573 -12.35629 8.87558 0 -1
45.24619 8.060249 -9.677948 5 -1
19.85631 12.60337 14.79025 0 -1
22.21486 2.690981 -18.77256 0 -1
-43.27367 -4.104335 -25.72478 0 -1
1.803692 -5.778254 7.152231 2 -1
24.65563 17.29031 27.26872 0 -1
37.67807 7.348464 -11.28445 5 -1
31.7352 2.790744 -13.35598 5 -1
-7.255593 21.17488 15.2181 6 -1
2.865517 14.43704 10.75024 6 -1
-2.23206 16.70172 10.77817 6 -1
-26.23013 2.79287 -10.75057 4 -1
29.56289 7.395399 -5.951538 0 -1
-7.723127 21.2251 14.25334 6 -1
19.43976 2.680786 -10.33325 0 -1
20.73679 3.238386 -17.74557 0 -1
-48.6028 -4.41777 -27.61264 0 -1
-46.6527 -5.436608 -13.20866 4 -1
-9.492615 0.44561 -2.013794 2 -1
11.19848 -2.085294 0.752756 0 -1
7.172867 -3.41777 2.872406 2 -1
22.76776 1.280707 -24.24636 0 -1
21.79622 0.887423 -25.32977 0 -1
-9.820478 -13.1242 11.90769 0 -1
-14.15613 19.47146 8.053579 6 -1
-46.91255 -6.101968 -16.28985 0 -1
-3.240118 19.78045 15.25349 6 -1
23.2441 2.866611 -16.24384 0 -1
36.72432 5.864576 -12.92307 5 -1
2.757172 -5.241416 5.73834 2 -1
-35.3125 -0.111311 -19.78215 4 -1
20.95387 12.73166 13.9133 0 -1
26.8255 4.665218 -8.693071 0 -1
-9.796654 20.69579 19.5688 6 -1
-13.73807 19.40079 18.59344 6 -1
-3.764662 16.75214 8.228113 6 -1
-45.29238 -4.611059 -13.27862 4 -1
-14.24556 20.732 15.2855 6 -1
28.62826 15.43905 22.61211 0 -1
1.07687 -15.82201 8.389977 0 -1
-2.254073 -3.255857 3.171719 2 -1
-39.22591 -1.915176 -22.76053 4 -1
48.2783 7.224623 -12.23448 5 -1
-12.71472 13.76058 -1.256144 0 -1
34.73684 1.886389 -21.26586 5 -1
-29.05373 4.302145 -4.668803 4 -1
38.7795 10.81695 -5.740976 5 -1
-14.7633 3.216128 -5.272223 4 -1
26.15057 4.202232 -6.935669 0 -1
25.11292 2.555225 -14.29903 0 -1
-45.16906 -4.324474 -12.22241 4 -1
-24.82814 6.751331 -26.21614 0 -1
27.74586 18.80112 23.63554 0 -1
32.21584 11.08679 -1.889259 0 -1
-28.78858 1.791764 -14.7922 4 -1
-18.6629 19.12893 16.16674 6 -1
16.76194 17.46853 27.65186 0 -1
-26.31332 4.466367 -5.925954 4 -1
47.23696 5.29074 -15.74746 5 -1
-20.28161 19.99892 12.99866 6 -1
-24.24884 4.736944 -19.23265 4 -1
24.73874 17.82259 24.19941 0 -1
-6.233674 14.65306 3.755354 6 -1
-13.28152 2.772146 -4.737908 0 -1
28.79452 2.090693 -15.72678 5 -1
48.71602 -2.277485 -16.88939 5 -1
25.89076 2.060513 -10.88478 0 -1
24.75972 2.699866 -17.69891 0 -1
46.26916 3.229928 -17.83559 5 -1
0.396022 3.202627 7.086243 2 -1
40.2587 0.246624 -22.27369 5 -1
35.17825 4.956657 -13.43315 5 -1
24.21809 2.773089 -14.74899 0 -1
4.615115 -5.636973 9.687217 0 -1
-36.77142 -0.850432 -18.76116 4 -1
36.32679 11.12459 -6.248169 5 -1
-45.75894 -4.336651 -26.73399 0 -1
-43.24632 -3.292691 -16.23852 4 -1
22.09229 2.326294 -5.47113 0 -1
-14.24167 18.96688 7.077871 6 -1
7.743669 0.636979 12.38901 0 -1
0.416809 2.315239 6.604172 2 -1
-20.29662 6.258276 -19.7609 0 -1
14.32475 -1.123584 -2.228587 0 -1
9.793098 4.16207 14.36218 0 -1
19.90125 1.253487 -5.099899 0 -1
12.14975 5.466831 16.09552 0 -1
1.410846 -6.76861 7.153041 2 -1
26.18125 18.92707 25.24263 0 -1
27.77207 -0.272681 -30.7961 0 -1
-40.72775 -2.654921 -19.74249 4 -1
2.280192 5.127837 0.56877 2 -1
-2.739616 -4.094028 3.860718 2 -1
-42.57471 -3.44811 -20.18137 4 -1
14.23594 16.29268 24.24621 0 -1
-1.232278 18.28178 13.22082 6 -1
-43.23264 -4.17926 -28.77003 0 -1
5.279687 -3.862468 5.564618 2 -1
1.650013 16.61465 12.78894 6 -1
48.70979 6.448864 -13.80481 5 -1
5.867162 -1.770023 11.18539 0 -1
10.73948 14.70392 22.25945 0 -1
4.248314 -0.683292 5.400543 2 -1
12.23329 16.16913 24.29926 0 -1
3.571979 2.244884 3.645685 2 -1
45.17478 4.620815 -17.13374 5 -1
29.24573 1.252552 -21.72204 5 -1
31.8647 8.071628 -7.716919 5 -1
-16.7037 3.527117 -5.926788 4 -1
3.282689 8.160159 -3.261577 2 -1
-32.03854 2.234303 0.045959 4 -1
32.34415 11.13738 -3.694725 0 -1
-32.30112 2.160328 -11.23461 4 -1
35.77325 2.76615 -15.71944 5 -1
0.210068 -4.798809 5.674785 2 -1
-1.372593 14.16583 7.781624 6 -1
2.658768 -4.253595 7.123833 2 -1
4.461609 6.402584 -1.102158 2 -1
0.15963 8.732555 6.394424 6 -1
39.73391 7.669833 -11.62411 5 -1
1.703568 -12.96233 9.078918 0 -1
-34.72339 0.186808 -21.70853 4 -1
18.80254 14.32805 19.7178 0 -1
25.05468 3.950689 -6.299276 0 -1
-16.71598 19.05795 6.467194 6 -1
0.666631 16.05524 10.92194 6 -1
6.683612 -3.699722 4.285162 2 -1
14.28171 17.20572 26.26163 0 -1
45.75854 -7.619222 -23.84927 5 -1
-8.800962 19.96008 10.12297 6 -1
-26.68944 1.456026 -11.8726 4 -1
-7.50518 -11.99475 12.14386 0 -1
26.09901 2.185434 -25.69798 0 -1
-6.496338 13.48988 0.778229 0 -1
-13.31133 18.52589 5.444427 6 -1
24.74824 15.71239 31.63037 0 -1
-5.252551 16.24854 7.379827 6 -1
14.70856 -1.344188 -0.826666 0 -1
-17.73753 19.09203 6.388031 6 -1
31.79507 2.131713 -19.7603 5 -1
22.2741 1.716878 -10.23459 0 -1
-23.10351 4.546432 -15.90838 4 -1
6.771489 5.739761 -1.715358 2 -1
-36.71786 -0.667056 -20.23814 4 -1
2.624494 17.23292 14.85732 6 -1
-25.53712 6.07238 -24.83964 0 -1
25.25304 14.60775 16.82129 0 -1
-9.690471 0.349718 -0.804504 2 -1
4.241844 3.247256 1.268474 2 -1
-7.271243 18.60231 8.883001 6 -1
35.71651 2.61125 -17.68438 5 -1
-0.784157 5.703156 6.416458 6 -1
3.259977 -20.26343 7.714955 0 -1
23.29261 14.96367 19.55341 0 -1
-12.20321 21.05087 14.76154 6 -1
44.69014 7.18621 -11.71754 5 -1
-7.74886 15.23483 4.130637 6 -1
14.59911 -2.735537 -0.259328 0 -1
34.14415 -2.900003 -31.77577 0 -1
-27.8997 3.413331 -29.23581 0 -1
-16.19324 20.22758 9.22584 6 -1
42.28294 7.910002 -9.786953 5 -1
-1.736579 12.24 6.709068 6 -1
32.7263 1.658457 -22.6691 5 -1
48.29955 -4.016891 -18.48178 5 -1
9.963821 15.32574 24.50955 0 -1
-43.74585 -3.380032 -12.74496 4 -1
17.24089 -0.68443 -3.252319 0 -1
2.229054 -14.72651 8.225758 0 -1
26.00774 2.17527 -9.959625 0 -1
-8.754558 -10.92494 8.179888 0 -1
12.23822 17.19021 26.21674 0 -1
-11.26749 0.85684 -2.177612 0 -1
-43.27468 -4.107532 -23.74228 0 -1
-22.91491 5.053032 -6.718414 4 -1
2.675808 -6.141975 5.981918 2 -1
40.79921 3.088386 -19.19793 5 -1
19.61539 -0.334091 -4.007874 0 -1
0.735388 16.69966 12.26362 6 -1
35.25291 10.22269 -6.752324 5 -1
-8.775563 0.714948 -0.695085 2 -1
9.694744 -3.189824 2.196551 0 -1
49.304 0.239771 -17.2738 5 -1
-28.26391 5.391601 -3.372721 4 -1
46.20977 -6.694531 -23.83419 5 -1
-15.21074 20.67647 16.31568 6 -1
2.757587 -6.902873 -2.756727 2 -1
29.38097 -0.506878 -30.07996 0 -1
6.288027 -6.659657 1.190103 2 -1
-4.102796 11.92121 1.81781 0 -1
0.752167 -6.242134 5.695801 2 -1
-19.42238 5.093245 -12.18966 4 -1
-32.29317 2.835271 -1.718258 4 -1
14.26804 14.90627 22.25453 0 -1
-4.292268 17.80606 9.282025 6 -1
40.19511 4.436131 -15.88129 5 -1
-28.14596 3.24065 -26.2516 0 -1
1.295128 -15.17245 7.266719 0 -1
-16.08424 16.18085 3.481705 6 -1
-3.728365 15.81164 7.581897 6 -1
-5.835193 -11.15469 12.87149 0 -1
2.5978 -16.34477 6.827413 0 -1
3.000427 2.495232 6.600128 2 -1
-1.804092 19.51028 14.48193 6 -1
25.72089 16.04825 31.52603 0 -1
26.74486 15.77728 21.80929 0 -1
-39.62089 -0.418471 -9.665358 4 -1
6.557348 6.947207 -7.176829 0 -1
25.62485 -1.106313 -27.77626 0 -1
4.826309 3.59706 6.216046 2 -1
-26.26343 4.750934 -24.2957 0 -1
10.74443 12.08165 19.40692 0 -1
-15.87163 3.298279 -7.193474 4 -1
-21.05198 6.014565 -19.28247 4 -1
35.90274 5.562147 -13.62463 5 -1
-8.436432 15.63596 3.368785 6 -1
3.298824 -4.752698 6.30937 2 -1
-7.373772 13.82692 1.065643 0 -1
45.20358 4.934658 -15.89574 5 -1
-44.9724 -5.043945 -19.29505 0 -1
1.294719 -14.12655 6.374959 0 -1
30.66218 2.118918 -19.20202 5 -1
-20.75931 3.828765 -11.24885 4 -1
-7.280574 12.89913 -2.072797 0 -1
-15.73192 3.382072 -6.245169 4 -1
11.16965 16.34384 25.17549 0 -1
-43.01327 -2.974991 -13.20981 4 -1
-22.77122 20.25037 12.24766 6 -1
-29.37205 2.438422 -29.28222 0 -1
37.74531 -1.472275 -26.57686 5 -1
38.16393 -2.424389 -27.58144 5 -1
-48.72981 -5.462513 -25.94249 0 -1
-33.24428 0.665233 -23.2429 4 -1
-22.71468 6.587978 -23.77564 0 -1
28.04616 9.948235 -2.46048 0 -1
27.14108 16.92232 30.77933 0 -1
-37.85769 -3.036312 -29.80181 0 -1
19.20522 3.766524 -18.75274 0 -1
-29.71876 2.084511 -12.19597 4 -1
-28.78726 2.932291 -30.78167 0 -1
-5.93647 -0.949203 2.298431 2 -1
-40.27289 -3.096043 -26.26521 0 -1
-38.57438 -1.463043 -17.78575 4 -1
40.68173 5.261413 -15.26696 5 -1
-40.98964 -3.07338 -24.3757 0 -1
-7.912125 -11.51421 10.49341 0 -1
-35.5646 -0.96032 -25.60608 0 -1
21.09949 2.593667 -14.17731 0 -1
13.88445 9.028389 16.43997 0 -1
29.76874 10.39916 -2.335874 0 -1
1.885487 -17.87949 7.815552 0 -1
28.12626 19.81941 27.83047 0 -1
-5.706345 13.44955 4.728333 6 -1
7.541656 5.873314 -4.088898 0 -1
19.72989 16.74792 24.26878 0 -1
46.23434 6.65623 -12.23861 5 -1
-5.220638 18.3868 9.752533 6 -1
2.641296 9.043564 -4.63623 0 -1
48.62968 2.198972 -17.58175 5 -1
-21.89396 2.974167 -10.08035 4 -1
4.155029 -20.59071 6.393738 0 -1
11.94478 -1.428192 0.405273 0 -1
-46.8742 -4.539711 -7.870575 4 -1
6.769373 -5.751986 -2.27489 2 -1
18.77507 15.17785 21.20809 0 -1
39.74443 6.238405 -13.76999 5 -1
38.76185 9.759489 -7.703812 5 -1
-30.07031 5.043968 -1.662506 4 -1
-34.92089 -0.033769 -23.25371 4 -1
11.23874 4.767204 14.85404 0 -1
26.93368 1.98595 -15.20306 0 -1
23.15024 17.4605 25.20467 0 -1
-42.25291 -2.31303 -11.75364 4 -1
27.68455 14.61175 20.32605 0 -1
-29.07592 2.239337 -9.211634 4 -1
26.28088 1.022583 -25.0732 0 -1
-27.91567 2.284195 -9.705139 4 -1
-4.718156 -9.757717 7.246492 0 -1
34.83075 5.566671 -12.62598 5 -1
32.59933 6.450859 -10.46002 5 -1
-30.65882 1.576227 -29.28571 0 -1
37.78472 5.57946 -14.52272 5 -1
9.107143 -3.706879 3.041077 0 -1
32.36348 7.622417 -9.12355 5 -1
-5.750654 21.28945 17.2559 6 -1
-1.850273 11.34763 3.879232 0 -1
50.52818 -6.055561 -21.87418 5 -1
-4.747307 12.9505 -1.389709 0 -1
26.88478 9.108772 -3.113556 0 -1
0.860779 4.127192 0.702419 2 -1
-27.47339 4.596638 -30.63553 0 -1
3.797374 -8.889018 5.596731 0 -1
-50.75303 -9.532059 -23.29495 0 -1
-6.376109 -12.12811 13.7742 0 -1
50.60046 -5.783193 -20.45008 5 -1
27.25831 2.257542 -18.79776 0 -1
-20.26121 3.241633 -7.318874 4 -1
48.54982 0.789319 -18.09871 5 -1
26.49036 0.044621 -31.19754 0 -1
-39.38886 -0.316536 -3.482605 4 -1
13.74815 9.807729 18.0976 0 -1
-48.70486 -8.267487 -23.369 0 -1
-44.56373 -2.960134 -7.234279 4 -1
1.31155 -1.650056 6.33752 2 -1
-5.758905 -9.666765 7.252178 0 -1
13.25206 12.08243 19.38876 0 -1
-20.06313 5.301636 -15.16632 4 -1
47.68505 6.626651 -12.75008 5 -1
-12.21367 18.29184 5.222482 6 -1
-31.75013 0.651821 -30.25123 0 -1
-32.11018 0.16929 -31.72408 0 -1
34.12463 2.587957 -18.32361 5 -1
-32.76204 3.316809 -5.76789 4 -1
-37.72826 1.175841 -4.743533 4 -1
-42.6916 -4.114814 -30.65459 0 -1
42.88152 -6.767583 -25.86684 5 -1
-4.845706 19.147 10.32312 6 -1
27.60532 5.99707 -5.962494 0 -1
-24.80265 5.276847 -5.319188 4 -1
-17.44611 15.94598 4.517853 6 -1
-14.7894 20.05969 10.37857 6 -1
45.23454 1.586823 -20.08146 5 -1
-38.07852 0.603867 -9.267875 4 -1
-0.204175 3.829642 -0.220984 2 -1
46.28839 6.130952 -15.1795 5 -1
-2.700908 17.31809 11.22805 6 -1
7.53981 -0.842003 11.27756 0 -1
-2.734236 12.20968 2.250775 0 -1
-7.240678 20.23108 11.31227 6 -1
4.61615 -19.09596 7.505554 0 -1
-35.36322 -2.051848 -31.27632 0 -1
23.49698 4.135971 -5.548706 0 -1
3.836151 -5.003738 5.41748 2 -1
-20.96243 19.44011 13.48462 6 -1
1.356662 13.36474 9.115015 6 -1
42.89848 8.549904 -6.472717 5 -1
28.81966 0.961294 -24.79041 0 -1
45.2707 0.264517 -20.816 5 -1
-1.256669 -3.817465 4.695686 2 -1
34.26609 3.240117 -14.79428 5 -1
11.05979 5.316561 15.76851 0 -1
48.26213 -6.196361 -24.17492 5 -1
46.61601 -1.741504 -21.11448 5 -1
19.09309 -1.476845 -4.335632 0 -1
-0.337952 15.60622 9.833752 6 -1
21.61688 1.893641 -4.807027 0 -1
11.55528 -2.719475 -0.404785 0 -1
-0.087855 -6.318105 1.317576 2 -1
21.72669 2.526514 -15.27816 0 -1
21.2363 16.80415 31.76475 0 -1
18.68454 13.93408 21.37143 0 -1
-46.86288 -5.618717 -14.2626 4 -1
-8.201372 21.3598 18.73995 6 -1
0.29038 11.3473 7.558736 6 -1
14.39494 15.88467 25.11848 0 -1
-35.17445 2.07125 -6.67368 4 -1
5.739541 -3.691941 10.69995 0 -1
-41.07803 -2.448931 -18.25673 4 -1
-13.75618 14.78065 -0.758331 0 -1
8.967972 14.53786 21.38766 0 -1
28.7687 8.712884 -4.74272 0 -1
3.742946 7.359476 -1.685953 2 -1
-33.9728 0.952412 -0.74855 4 -1
-27.75418 4.8567 -4.736224 4 -1
-26.66342 4.125053 -22.78514 4 -1
-23.73876 6.874004 -24.75922 0 -1
43.25816 6.848303 -13.32626 5 -1
42.41373 -6.206847 -26.80947 5 -1
-32.95942 -0.529465 -30.22607 0 -1
-4.730743 -1.555203 1.726154 2 -1
-7.202164 16.01633 4.363342 6 -1
-34.42225 -1.023566 -27.81805 0 -1
20.25628 2.718367 -11.69994 0 -1
-46.29307 -3.982147 -28.34514 0 -1
33.80733 12.23596 -4.562378 0 -1
28.30801 3.169402 -11.13225 5 -1
0.429123 -8.053238 6.533081 0 -1
-47.27554 -7.716428 -22.22566 0 -1
-3.180614 -3.179034 2.644811 2 -1
1.028381 -11.13589 6.449677 0 -1
19.74448 3.17195 -21.74057 0 -1
-12.67624 16.81054 4.238248 6 -1
-26.09052 5.742794 -26.77802 0 -1
31.15725 8.467297 -5.957214 0 -1
3.083237 -15.63758 7.495453 0 -1
10.77179 -1.756111 1.527672 0 -1
22.76134 4.025818 -4.470825 0 -1
35.10609 0.04586 -26.08662 5 -1
44.2859 -7.298109 -24.64701 5 -1
46.5698 0.212807 -20.08878 5 -1
-48.30148 -7.64584 -16.79077 0 -1
-40.41894 -0.572817 -6.743614 4 -1
19.83066 13.57818 17.79684 0 -1
9.713379 14.84135 22.72433 0 -1
-37.92073 -1.559221 -23.81463 0 -1
-40.06724 -1.958637 -17.64972 4 -1
-34.78313 -0.255839 -16.22389 4 -1
-5.592747 -8.869606 5.967422 0 -1
27.44702 18.51727 29.0947 0 -1
0.554688 18.36523 16.6167 6 -1
42.22179 5.669981 -15.59396 5 -1
37.17835 2.553078 -18.17759 5 -1
-25.289 2.164768 -11.70133 4 -1
-25.22031 1.825958 -10.77479 4 -1
-32.29888 3.351788 -2.720234 4 -1
2.442006 -8.329077 8.135756 0 -1
-20.02076 6.535278 -17.949 4 -1
-0.750412 7.824554 5.396545 2 -1
-7.101219 0.060944 1.598541 2 -1
19.26055 3.599009 -17.81347 0 -1
-19.25714 19.86356 14.25542 6 -1
0.303312 12.81134 8.120743 6 -1
28.68152 1.582663 -19.74077 5 -1
2.452438 -7.002602 7.495544 0 -1
